x,y,z
0.032915,-0.052890502,-0.027953003
0.031777002,-0.052839503,-0.027960002
0.030189,-0.053016502,-0.027848002
0.029381,-0.053430501,-0.027889002
0.028444,-0.054059502,-0.027868003
0.027770001,-0.054819502,-0.027905002
0.027254,-0.055682503,-0.027896002
0.026852001,-0.056663502,-0.027889002
0.026670001,-0.057779502,-0.027875002
0.026721001,-0.058847502,-0.027866002
0.027027,-0.060036503,-0.027852003
0.027359001,-0.060971502,-0.027843002
0.027708001,-0.061963502,-0.027836002
0.028026,-0.062996499,-0.027823001
0.028319001,-0.063973501,-0.027816001
0.028730001,-0.064886503,-0.027807001
0.029367,-0.065654501,-0.027795002
0.030336,-0.066122502,-0.027786002
0.030584,-0.066179499,-0.027784001
0.031589001,-0.066388503,-0.027774002
0.032234002,-0.066436499,-0.027770001
0.028189,0.016138501,-0.028420001
0.029063001,0.017080501,-0.028417002
0.029461,0.018129501,-0.028424002
0.029515002,0.0196505,-0.028433003
0.029492002,0.0201235,-0.028438002
0.029538002,0.021125499,-0.028445002
0.029833,0.022007499,-0.028449003
0.030088,0.0229735,-0.028461002
0.030140001,0.024053499,-0.028465003
0.029917002,0.0250085,-0.028475001
0.029538002,0.0258395,-0.028482001
0.029344,0.0261425,-0.028484002
0.028669,0.0268935,-0.028495003
0.027755,0.027362499,-0.028505001
0.026709002,0.027330499,-0.028511003
0.026263,0.0272425,-0.028512001
0.025268,0.0270475,-0.028521001
0.024695002,0.0268935,-0.028523002
0.023734,0.0265605,-0.028527003
0.023475001,0.0264135,-0.028528001
0.022956001,0.0260185,-0.028530002
0.022316001,0.025199499,-0.028527003
0.021896999,0.024255499,-0.028525002
0.021658,0.023100499,-0.028516002
0.021615,0.0228035,-0.028512001
0.021522,0.0217265,-0.028502002
0.021554001,0.0207185,-0.028488003
0.021654001,0.0197035,-0.028489001
0.021932,0.0187415,-0.028479002
0.022193,0.018113501,-0.028475001
0.022619002,0.017220501,-0.028465003
0.022843,0.0168745,-0.028461002
0.023564,0.016151499,-0.028450001
0.024168,0.015740499,-0.028445002
0.025148001,0.0153935,-0.028433003
0.026294,0.0152935,-0.028433003
0.003238,0.0279865,-0.028679002
0.003284,0.028228499,-0.028681003
0.003311,0.0292565,-0.028691001
0.003183,0.0302375,-0.028702002
0.002823,0.0312085,-0.028711002
0.002405,0.0320925,-0.028723001
0.001794,0.032853499,-0.028743003
0.001217,0.033303499,-0.028757002
0.000356,0.0338265,-0.028760001
-0.000442,0.0341275,-0.028759003
-0.001383,0.0341895,-0.028766003
-0.001685,0.0342305,-0.028769001
-0.002073,0.0342145,-0.028764002
-0.002879,0.0338425,-0.028760001
-0.003477001,0.033271499,-0.028760001
-0.003731,0.0329815,-0.028764002
-0.004328,0.0322075,-0.028764002
-0.004692,0.031181499,-0.028759003
-0.004699,0.0298765,-0.028750002
-0.004444,0.0289925,-0.028743003
-0.004065,0.027989499,-0.028730001
-0.004189,0.026988499,-0.028727002
-0.004412,0.026012499,-0.028720003
-0.004459,0.024999499,-0.028714001
-0.004027001,0.0238805,-0.028704002
-0.003368,0.0231045,-0.028693002
-0.002417,0.022836499,-0.028684001
-0.001263,0.0229115,-0.028686002
-0.000202,0.0233915,-0.028675001
0.000701,0.024000499,-0.028672002
0.001378,0.0246615,-0.028672002
0.002072,0.0257705,-0.028681003
0.002633,0.0267005,-0.028677002
-0.005584001,-0.076550499,-0.027976003
-0.005073001,-0.077267498,-0.027914003
-0.004190001,-0.077951498,-0.027884003
-0.003733001,-0.078709498,-0.027917001
-0.004182001,-0.080275498,-0.027931001
-0.004298001,-0.081111498,-0.027917001
-0.004081001,-0.082259499,-0.027910002
-0.003577,-0.082997501,-0.027898002
-0.00304,-0.083398499,-0.027891003
-0.002091,-0.083697498,-0.027880002
-0.001057,-0.083789498,-0.027869001
2.70E-05,-0.0836045,-0.027866002
0.000473,-0.083462499,-0.027862001
0.001402,-0.083063498,-0.027866002
0.033114001,-0.066168502,-0.027069002
0.033697002,-0.065084502,-0.027065001
0.034031,-0.064058498,-0.027072001
0.034403,-0.062439501,-0.027076002
0.034611002,-0.061998501,-0.027069002
0.035298999,-0.061299503,-0.027072001
0.035943002,-0.060721502,-0.027085003
0.036634002,-0.059944503,-0.027081002
0.03712,-0.058982503,-0.027085003
0.037332002,-0.057944503,-0.027095001
0.037211999,-0.056971502,-0.027101003
0.036857001,-0.055992503,-0.027118001
0.036588002,-0.055471502,-0.027127001
0.036036,-0.054624502,-0.027147003
0.035688002,-0.054210503,-0.027161002
0.034944002,-0.053524502,-0.027196001
0.034107,-0.052920502,-0.027218003
0.033063002,-0.052493501,-0.027276002
0.031931002,-0.052380502,-0.027347002
0.030739002,-0.052481502,-0.027324002
0.029955,-0.052640501,-0.027175002
0.028919,-0.053204503,-0.027161002
0.028154001,-0.053870503,-0.027209003
0.02753,-0.054679502,-0.027200002
0.027085001,-0.055588502,-0.027186003
0.026744001,-0.056589503,-0.027182002
0.026624002,-0.057749502,-0.027173001
0.026736001,-0.058845501,-0.027159002
0.027046001,-0.060020503,-0.027138002
0.027387001,-0.060950503,-0.027133003
0.027722999,-0.061988503,-0.027124003
0.028026,-0.062990502,-0.027122002
0.028123001,-0.063318498,-0.027120002
0.028309001,-0.063931502,-0.027117003
0.028746001,-0.064870499,-0.027108002
0.029396001,-0.065607503,-0.027097002
0.029646002,-0.065791503,-0.027094003
0.030584,-0.066131502,-0.027083002
0.031583,-0.066329502,-0.027072001
0.032230999,-0.066404499,-0.027065001
0.028061001,0.016074501,-0.027721003
0.028323,0.016376499,-0.027722001
0.028978001,0.017166499,-0.027719002
0.029345002,0.0182455,-0.027726002
0.029426999,0.019667499,-0.027735002
0.029389001,0.0201605,-0.027738001
0.029406,0.0211775,-0.027744003
0.029529002,0.021970499,-0.027749002
0.029763002,0.022992499,-0.027777001
0.029941,0.0239955,-0.027765002
0.029847,0.0248935,-0.027772002
0.029537,0.0258465,-0.027779002
0.029358,0.0261655,-0.027784001
0.028716002,0.0269555,-0.027793001
0.027859,0.0274675,-0.027806003
0.027542001,0.027539499,-0.027809002
0.026372001,0.027493499,-0.027818002
0.025268,0.0272655,-0.027822003
0.024636,0.027096499,-0.027823001
0.023688,0.0267535,-0.027829003
0.022843,0.0262045,-0.027829003
0.022173,0.025355499,-0.027829003
0.021735001,0.024431501,-0.027823001
0.021476001,0.0232765,-0.027818002
0.021387,0.0227465,-0.027818002
0.021306001,0.021699499,-0.027806003
0.021398,0.020697501,-0.027793001
0.021507001,0.019682501,-0.027790003
0.021825001,0.018731501,-0.027783003
0.022096001,0.018081501,-0.027774002
0.022595,0.017220501,-0.027765002
0.023257,0.016461499,-0.027751002
0.024199001,0.015811499,-0.027742002
0.025214002,0.0155165,-0.027737003
0.02627,0.0153865,-0.027733002
0.003417,0.028972499,-0.027986001
0.003397,0.0292865,-0.027990002
0.003177,0.030226499,-0.027997002
0.002753,0.0311925,-0.028008003
0.002313,0.0320375,-0.028022002
0.001724,0.0328505,-0.028034002
0.001224,0.033342499,-0.028043002
0.000371,0.0338815,-0.028050002
-0.00043,0.034210499,-0.028054003
-0.001387,0.0343385,-0.028059002
-0.001697,0.034393501,-0.028059002
-0.00213,0.034364499,-0.028061002
-0.002958001,0.033946499,-0.028061002
-0.003547001,0.0333695,-0.028059002
-0.003833001,0.0330685,-0.028061002
-0.004398,0.032256499,-0.028061002
-0.004701001,0.0311855,-0.028061002
-0.004724001,0.0298605,-0.028054003
-0.004452,0.028997499,-0.028041001
-0.004004001,0.028026499,-0.028029002
-0.004197001,0.026997499,-0.028022002
-0.004430001,0.026028499,-0.028018001
-0.004484001,0.0249965,-0.028013002
-0.004066001,0.0238805,-0.028002001
-0.003373,0.0231205,-0.027993001
-0.002432,0.0227625,-0.027981002
-0.001332,0.0229115,-0.027979001
-0.000237,0.023387499,-0.027970001
0.000635,0.023998499,-0.027970001
0.00153,0.024866499,-0.027970001
0.002065,0.0257245,-0.027974002
0.002653,0.0266525,-0.027976003
0.003134,0.0277135,-0.027960002
-0.005328001,-0.0762555,-0.027280003
-0.004553,-0.076908499,-0.027265001
-0.003740001,-0.077588499,-0.027228002
-0.003816,-0.078677498,-0.027232002
-0.004290001,-0.080353498,-0.027221002
-0.004344,-0.081423499,-0.027209003
-0.004066001,-0.082213499,-0.027207002
-0.003794,-0.0826445,-0.027203001
-0.002996,-0.083311498,-0.027193002
-0.002064,-0.083614498,-0.027179003
-0.001034,-0.083720498,-0.027170002
2.30E-05,-0.083545499,-0.027164001
0.000453,-0.0834205,-0.027164001
0.001395,-0.083040498,-0.027159002
0.033068001,-0.066202499,-0.026364002
0.033634,-0.064909503,-0.026367001
0.033884,-0.063887499,-0.026376002
0.034237999,-0.062223502,-0.026374001
0.034889001,-0.061260503,-0.026378002
0.035883002,-0.060413502,-0.026383001
0.036439002,-0.059834503,-0.026383001
0.036942001,-0.058975503,-0.026385002
0.037246,-0.057944503,-0.026394002
0.037211999,-0.056973502,-0.026406001
0.03692,-0.055983502,-0.026417002
0.036379002,-0.054959502,-0.026435003
0.036146,-0.054568503,-0.026442003
0.035578001,-0.053740501,-0.026456002
0.035122,-0.053220503,-0.026490003
0.034294002,-0.052568503,-0.026490003
0.033317,-0.052137502,-0.026560001
0.032287002,-0.051902503,-0.026605003
0.031164002,-0.051967502,-0.026619002
0.029545002,-0.052401502,-0.026504003
0.0286,-0.052998502,-0.026481003
0.027882,-0.053707503,-0.026530001
0.027329002,-0.054582503,-0.026490003
0.026949,-0.055526502,-0.026490003
0.026700001,-0.056624502,-0.026479002
0.026651001,-0.057786502,-0.026463002
0.026782,-0.058883503,-0.026445001
0.027135,-0.059984501,-0.026429001
0.027472001,-0.060983501,-0.026424002
0.02775,-0.061974503,-0.026426002
0.028049,-0.062964499,-0.026426002
0.028149001,-0.063290499,-0.026422001
0.028347,-0.063906498,-0.026415002
0.028795,-0.064808503,-0.026408002
0.029451001,-0.065525502,-0.026399001
0.030613001,-0.066032499,-0.026387002
0.031599,-0.066235498,-0.026369002
0.032046001,-0.066320501,-0.026366003
0.02784,0.016105499,-0.027023003
0.028270001,0.016453501,-0.027019002
0.028871,0.0172695,-0.027019002
0.029210001,0.018406499,-0.027033001
0.029318999,0.019127499,-0.027037002
0.029318999,0.020156499,-0.027037002
0.029242001,0.0212465,-0.027046002
0.029297002,0.022000499,-0.027051002
0.029521,0.0228795,-0.027056001
0.029746,0.023968499,-0.027065001
0.029768001,0.024852499,-0.027069002
0.029469002,0.0259335,-0.027081002
0.028764002,0.0270175,-0.027097002
0.027952,0.0275985,-0.027101003
0.027614001,0.0277365,-0.027108002
0.026484001,0.0277295,-0.027118001
0.025263,0.027461499,-0.027124003
0.024586,0.027275499,-0.027124003
0.023639999,0.0269255,-0.027129002
0.022774,0.0263975,-0.027133003
0.022034001,0.025509499,-0.027129002
0.021584,0.0245395,-0.027129002
0.021279,0.023419499,-0.027129002
0.021182001,0.022691499,-0.027118001
0.021135001,0.021667499,-0.027101003
0.021228001,0.020622499,-0.027101003
0.021395002,0.019653499,-0.027092002
0.021724001,0.018715501,-0.027083002
0.022043999,0.018058501,-0.027076002
0.022588,0.017229501,-0.027067002
0.023242,0.016439501,-0.027055003
0.024218,0.015835501,-0.027039003
0.025237001,0.0155865,-0.027039003
0.026306,0.0154935,-0.027028002
0.00342,0.028981499,-0.027283002
0.003404,0.029289499,-0.027287003
0.003133,0.030228499,-0.027294002
0.002793,0.031202499,-0.027306002
0.002312,0.0320515,-0.027315002
0.001727,0.032869499,-0.027327001
0.00122,0.033372499,-0.027333003
0.000356,0.033898499,-0.027349003
-0.000406,0.0343135,-0.027356002
-0.001391,0.034504499,-0.027363002
-0.001712,0.034426499,-0.027359001
-0.002143,0.0344005,-0.027361002
-0.003058,0.0341065,-0.027372003
-0.003640001,0.0334705,-0.027361002
-0.003973001,0.033186499,-0.027370002
-0.004453001,0.032304499,-0.027363002
-0.004777,0.031266499,-0.027356002
-0.004755001,0.029902499,-0.027350001
-0.00446,0.029018499,-0.027342003
-0.004002,0.0280255,-0.027331002
-0.004166001,0.0270015,-0.027326003
-0.004445001,0.026035499,-0.027322002
-0.004536,0.025013499,-0.027313001
-0.004267001,0.024131499,-0.027306002
-0.004097001,0.023837499,-0.027299002
-0.003415001,0.023086499,-0.027292002
-0.002472,0.022698499,-0.027283002
-0.00143,0.022760499,-0.027271003
-0.000268,0.0231825,-0.027264003
0.000693,0.023796499,-0.027265001
0.000945,0.0240255,-0.027265001
0.001634,0.024751499,-0.027269002
0.002149,0.025672499,-0.027271003
0.002567,0.026632499,-0.027262002
0.0033,0.0276585,-0.027269002
-0.005736,-0.074164502,-0.026583001
-0.005468001,-0.0751765,-0.026575003
-0.004923,-0.075971499,-0.026566003
-0.003957001,-0.076647498,-0.026527002
-0.003392001,-0.077313498,-0.026536003
-0.003887,-0.078869499,-0.026527002
-0.004306001,-0.080367498,-0.026523001
-0.004329001,-0.0814135,-0.026514001
-0.004039,-0.082172498,-0.026509002
-0.003793,-0.082524501,-0.026504003
-0.002964,-0.0832415,-0.026493002
-0.002034,-0.083545499,-0.026479002
-0.000984,-0.0836505,-0.026472002
4.60E-05,-0.083481498,-0.026465002
0.000433,-0.083375499,-0.026465002
0.001383,-0.083026499,-0.026456002
0.033017002,-0.066032499,-0.025666002
0.033505,-0.064611502,-0.025669001
0.033725999,-0.063578501,-0.025680002
0.034035999,-0.061997503,-0.025685001
0.034230001,-0.061649501,-0.025682002
0.034898002,-0.060868502,-0.025675002
0.035687,-0.060236502,-0.025675002
0.03647,-0.059412502,-0.025682002
0.036960002,-0.058473501,-0.025691003
0.037121002,-0.057937503,-0.025701001
0.037192002,-0.056955501,-0.025705002
0.03695,-0.055953503,-0.025717001
0.036492001,-0.054941501,-0.025726002
0.035996001,-0.054054502,-0.025742002
0.035743002,-0.053622503,-0.025753003
0.035129,-0.052830502,-0.025783002
0.034347001,-0.052185502,-0.025799002
0.033551,-0.051755503,-0.025822002
0.032588001,-0.051484503,-0.025882002
0.031332999,-0.051484503,-0.025871001
0.029988002,-0.051726501,-0.025808003
0.029219002,-0.052141502,-0.025843002
0.0283,-0.052803501,-0.025808003
0.027673,-0.053597502,-0.025827002
0.027187999,-0.054491501,-0.025797002
0.026870999,-0.055517502,-0.025792003
0.026732001,-0.056571502,-0.025776003
0.026746999,-0.057788502,-0.025765002
0.026903,-0.058890503,-0.025744002
0.027203999,-0.059958503,-0.025731001
0.027534001,-0.060966503,-0.025728002
0.027812,-0.061949503,-0.025731001
0.028084001,-0.062935501,-0.025724001
0.028382,-0.063848503,-0.025721002
0.028855,-0.064733498,-0.025714003
0.029584002,-0.065399498,-0.025705002
0.03066,-0.065849498,-0.025689002
0.031636,-0.066067502,-0.025675002
0.032014001,-0.066138498,-0.025664002
0.027708001,0.0161305,-0.026323002
0.028088,0.016416501,-0.026323002
0.028756,0.017361499,-0.026328001
0.029109001,0.018484499,-0.026332002
0.029211,0.0191985,-0.026334003
0.029201999,0.020188499,-0.026341002
0.029141001,0.021265499,-0.026350003
0.029166002,0.022007499,-0.026355002
0.029413,0.0230035,-0.026364002
0.029668,0.0239725,-0.026367001
0.029707,0.0249945,-0.026374001
0.029482,0.025949501,-0.026378002
0.029074002,0.026742499,-0.026392002
0.028392002,0.0274745,-0.026401002
0.027672,0.027865499,-0.026410002
0.0266,0.0279545,-0.026415002
0.026252002,0.027904499,-0.026419003
0.025260001,0.027672499,-0.026428003
0.024265001,0.027398501,-0.026428003
0.023571,0.027158499,-0.026433002
0.022700001,0.0266455,-0.026435003
0.021852002,0.0256925,-0.026435003
0.021395002,0.024712499,-0.026429001
0.021085002,0.023603499,-0.026428003
0.020975001,0.022650499,-0.026413001
0.020918,0.021612499,-0.026412003
0.021076001,0.0205965,-0.026401002
0.021286,0.019623499,-0.026394002
0.021650001,0.018699501,-0.026385002
0.021960001,0.018020499,-0.026376002
0.022498,0.017166499,-0.026367001
0.023164,0.016438499,-0.026357003
0.024211001,0.015873499,-0.026341002
0.025264001,0.015625499,-0.026334003
0.026318001,0.015526501,-0.026330002
0.003506,0.0290065,-0.026585001
0.003482,0.029335499,-0.026589002
0.003191,0.0302555,-0.026599001
0.00277,0.0311925,-0.026605003
0.002406,0.031753499,-0.026617002
0.001835,0.0326115,-0.026626002
0.001165,0.033310499,-0.026637003
0.000356,0.033921499,-0.026645001
-0.000411,0.0343065,-0.026651002
-0.001399,0.0345405,-0.026665002
-0.001724,0.0345545,-0.026665002
-0.002166,0.0345245,-0.026672002
-0.003074001,0.0341825,-0.026674002
-0.003747,0.033597499,-0.026674002
-0.004050001,0.0332685,-0.026672002
-0.004576,0.0324095,-0.026667003
-0.004878,0.0313715,-0.026663002
-0.004902001,0.031018499,-0.026663002
-0.004847,0.0299915,-0.026651002
-0.004515001,0.0290245,-0.026644003
-0.004027001,0.028003499,-0.026633002
-0.004159001,0.027034499,-0.026628003
-0.004458,0.0261495,-0.026622001
-0.004529,0.0251205,-0.026612002
-0.004337001,0.024121501,-0.026603002
-0.004148,0.023788501,-0.026603002
-0.003476,0.023015499,-0.026592001
-0.002507,0.0226175,-0.026583001
-0.00144,0.022666499,-0.026571002
-0.00034,0.0230265,-0.026566003
0.000693,0.023711499,-0.026569001
0.000979,0.023991499,-0.026566003
0.00168,0.024712499,-0.026566003
0.002234,0.025578499,-0.026566003
0.002747,0.0265125,-0.026552003
0.003342,0.0275825,-0.026555002
-0.005956001,-0.073122501,-0.025887001
-0.005845,-0.073532499,-0.025884002
-0.005659,-0.074093498,-0.025871001
-0.005172,-0.075001501,-0.025875002
-0.004476001,-0.075719498,-0.025854003
-0.003694001,-0.0762235,-0.025825001
-0.003174,-0.077178501,-0.025845002
-0.003996001,-0.078992501,-0.025831003
-0.004189,-0.0795485,-0.025827002
-0.004351,-0.081106499,-0.025815003
-0.003988001,-0.082098499,-0.025808003
-0.003747,-0.0824605,-0.025806002
-0.002932,-0.083173499,-0.025793001
-0.001998,-0.0834665,-0.025781002
-0.000953,-0.083573498,-0.025770001
6.10E-05,-0.083403498,-0.025767002
0.000415,-0.083315499,-0.025765002
0.001372,-0.0829795,-0.025760002
0.032774001,-0.065846503,-0.024993002
0.033365,-0.064276502,-0.024979003
0.033582002,-0.063329503,-0.024982002
0.033888999,-0.061795503,-0.024986003
0.034062002,-0.061423503,-0.024980001
0.034697,-0.060668502,-0.024977002
0.035509001,-0.060055502,-0.024984002
0.036235999,-0.059366502,-0.024982002
0.036639001,-0.058778502,-0.024986003
0.036979999,-0.057965502,-0.024991002
0.037146002,-0.056943502,-0.025002003
0.036972001,-0.055956502,-0.025014002
0.036587,-0.054911502,-0.025025003
0.03616,-0.053987503,-0.025046002
0.035929002,-0.053521503,-0.025055002
0.035401002,-0.052681502,-0.025090002
0.034588002,-0.051955502,-0.025133003
0.033745002,-0.051422503,-0.025136001
0.032760002,-0.051110502,-0.025182001
0.031537,-0.051069502,-0.025239002
0.030041002,-0.051287502,-0.025147002
0.028826002,-0.051934503,-0.025124002
0.028068,-0.052663501,-0.025124002
0.027472001,-0.053503502,-0.025122002
0.027100001,-0.054449502,-0.025094002
0.026893999,-0.055496503,-0.025085002
0.02682,-0.056667503,-0.025071003
0.026868001,-0.057816502,-0.025065001
0.027096,-0.059012502,-0.025032002
0.02734,-0.059931502,-0.025026001
0.027627001,-0.060973503,-0.025025003
0.027902,-0.061972503,-0.025028002
0.028161,-0.062951498,-0.025023002
0.028452002,-0.063745499,-0.025023002
0.028978001,-0.064604498,-0.025018003
0.029808,-0.065304503,-0.025002003
0.030699,-0.065637499,-0.024991002
0.031692002,-0.065839499,-0.024970002
0.027526001,0.016128499,-0.025627002
0.027995002,0.016492501,-0.025629003
0.028693002,0.017436501,-0.025627002
0.029027,0.018536501,-0.025632001
0.029118001,0.019167501,-0.025634002
0.029111002,0.020234499,-0.025641002
0.029054999,0.0212995,-0.025650002
0.029070999,0.0219975,-0.025652003
0.029343002,0.0230125,-0.025661003
0.029614002,0.0239495,-0.025664002
0.029690001,0.024990499,-0.025671002
0.029554002,0.0258855,-0.025680002
0.029141001,0.0268085,-0.025691003
0.028493002,0.0275755,-0.025701001
0.027754001,0.0280305,-0.025708001
0.026759,0.0281935,-0.025719002
0.026240001,0.028129499,-0.025719002
0.025245,0.0278925,-0.025724001
0.024257001,0.0276215,-0.025728002
0.023528,0.027362499,-0.025735002
0.023041001,0.0271345,-0.025737002
0.022336001,0.0266365,-0.025737002
0.021701001,0.025828499,-0.025733002
0.021239001,0.024898499,-0.025733002
0.020925,0.023759499,-0.025731001
0.020732,0.0226015,-0.025721002
0.020721,0.021549501,-0.025714003
0.020918,0.020583499,-0.025703002
0.021158,0.019623499,-0.025696002
0.021556001,0.018669501,-0.025687002
0.021914002,0.018005501,-0.025678001
0.022471,0.017160501,-0.025666002
0.023138002,0.016448501,-0.025655001
0.024222001,0.015848499,-0.025645003
0.025268,0.0155875,-0.025634002
0.026283,0.0156105,-0.025632001
0.003583,0.0290085,-0.025884002
0.003517,0.029350501,-0.025889002
0.003184,0.0302785,-0.025898002
0.002726,0.031202499,-0.025909003
0.002215,0.032008499,-0.025917001
0.001584,0.0327885,-0.025930002
0.000902,0.0334935,-0.025939003
0.000468,0.0338195,-0.025944002
-0.000411,0.034332499,-0.025953002
-0.001386,0.0346095,-0.025962003
-0.001727,0.0346325,-0.025967002
-0.0022,0.034612499,-0.025969002
-0.003119,0.034286499,-0.025972001
-0.003818001,0.0337345,-0.025972001
-0.004461001,0.0329445,-0.025972001
-0.004654001,0.0324995,-0.025971003
-0.004949001,0.031436499,-0.025965001
-0.004979,0.0310225,-0.025962003
-0.004918001,0.029994499,-0.025953002
-0.004608001,0.029034499,-0.025942001
-0.004058001,0.0280095,-0.025933001
-0.004081001,0.027337499,-0.025926001
-0.004389,0.026237499,-0.025921002
-0.004530001,0.025123499,-0.025912002
-0.004337001,0.0241265,-0.025907002
-0.004135001,0.023768499,-0.025900003
-0.003461001,0.022976499,-0.025893003
-0.00253,0.022574499,-0.025877003
-0.001465,0.022588499,-0.025871001
-0.000371,0.0229575,-0.025864001
0.000744,0.023688499,-0.025877003
0.001073,0.023899499,-0.025871001
0.001674,0.024712499,-0.025873002
0.002273,0.0255505,-0.025873002
0.00287,0.0265035,-0.025870003
0.003462,0.0273045,-0.025870003
0.003653,0.028368499,-0.025877003
-0.006165001,-0.072570503,-0.025195003
-0.005946,-0.073099501,-0.025188003
-0.005511,-0.074019499,-0.025172003
-0.004915,-0.074777499,-0.025172003
-0.004004001,-0.0754475,-0.025150001
-0.003203,-0.076086499,-0.025143001
-0.003064,-0.077141501,-0.025138002
-0.004133,-0.079511501,-0.025124002
-0.004283001,-0.081033498,-0.025117002
-0.003715,-0.082374498,-0.025104001
-0.002925,-0.083072498,-0.025094002
-0.001957,-0.083384499,-0.025083002
-0.000926,-0.083495498,-0.025074001
7.30E-05,-0.083325498,-0.025064003
0.000391,-0.083237499,-0.025064003
0.00134,-0.082893498,-0.025060002
0.002079,-0.082402498,-0.025060002
0.032529,-0.065527499,-0.024309002
0.032714002,-0.065481499,-0.024321999
0.033278,-0.063860498,-0.024284001
0.033789001,-0.061515503,-0.024285
0.0339,-0.061208501,-0.024293002
0.034531999,-0.060475502,-0.024284001
0.035332002,-0.059894502,-0.024275001
0.035836,-0.059462503,-0.024282999
0.036472,-0.058711503,-0.024284001
0.036642,-0.058383502,-0.024293002
0.036990002,-0.057409503,-0.024301
0.037076,-0.056936502,-0.024307001
0.037020002,-0.055951502,-0.024315
0.036735002,-0.054943502,-0.024332002
0.036361001,-0.053928502,-0.02434
0.03596,-0.053019501,-0.024355002
0.035558,-0.052359503,-0.024377
0.034841999,-0.051654503,-0.024410002
0.033961002,-0.051119503,-0.024431001
0.032962002,-0.050655503,-0.024438001
0.031793002,-0.050642502,-0.024487
0.030216999,-0.050674502,-0.024383999
0.029396001,-0.051119503,-0.024417002
0.028446,-0.051730502,-0.024415001
0.027906001,-0.052598502,-0.024422999
0.027363,-0.053436503,-0.024408001
0.027054001,-0.054445501,-0.024399001
0.026968,-0.055591501,-0.024383001
0.026893999,-0.056741502,-0.024367999
0.027061,-0.057944503,-0.024354
0.027224001,-0.058955502,-0.024344999
0.027474999,-0.059947502,-0.024337001
0.027720001,-0.060953502,-0.024331
0.027960001,-0.061949503,-0.024332002
0.028161,-0.062668502,-0.024332002
0.028545,-0.063640498,-0.024330001
0.029105,-0.064453498,-0.024330001
0.029833,-0.065038502,-0.024314001
0.030776002,-0.065403499,-0.024293002
0.031762,-0.065575503,-0.024277002
0.027263001,0.016098499,-0.024924003
0.027937001,0.016639501,-0.024929002
0.028590001,0.017571501,-0.024929002
0.028946999,0.018655501,-0.024931002
0.029017001,0.0201535,-0.024945002
0.028957002,0.0213155,-0.024952002
0.028971002,0.0220045,-0.024959002
0.029256999,0.0230125,-0.024964001
0.029616002,0.0239725,-0.024968002
0.02973,0.0250175,-0.024975002
0.029598001,0.0259315,-0.024982002
0.029212002,0.0268475,-0.024991002
0.028586,0.0276125,-0.024998002
0.028239001,0.0279315,-0.025005002
0.027855001,0.0281795,-0.025009003
0.02689,0.028400499,-0.025019001
0.026217001,0.0283425,-0.025025003
0.025241001,0.0281475,-0.025032002
0.024245001,0.027840499,-0.025037002
0.023475001,0.0275595,-0.025032002
0.022956001,0.027282499,-0.025032002
0.022153001,0.0266755,-0.025041003
0.021519002,0.025911499,-0.025039002
0.021089001,0.0250565,-0.025039002
0.020763,0.023935501,-0.025044002
0.020577,0.0227185,-0.025030002
0.020528,0.0215315,-0.025021002
0.020787001,0.0205415,-0.025009003
0.021026,0.019582499,-0.025002003
0.021422001,0.018622499,-0.024989001
0.021817001,0.017950501,-0.024982002
0.022394001,0.017127499,-0.024975002
0.023099001,0.0164015,-0.024956003
0.024190001,0.015858501,-0.024943002
0.025287,0.0156085,-0.024931002
0.026266001,0.015656501,-0.024936002
0.003591,0.0290865,-0.025186002
0.003552,0.0293415,-0.025188003
0.003165,0.030265499,-0.025200002
0.002669,0.031188499,-0.025209002
0.00218,0.031994499,-0.025218002
0.001538,0.032759499,-0.025234003
0.000852,0.0334475,-0.025241002
0.000457,0.033812501,-0.025244001
-0.000411,0.034355499,-0.025251001
-0.001372,0.0346715,-0.025262002
-0.001731,0.0347175,-0.025269002
-0.002251,0.034703501,-0.025273003
-0.00315,0.034378499,-0.025274001
-0.003880001,0.0338585,-0.025276002
-0.004530001,0.0330595,-0.025276002
-0.004740001,0.0325955,-0.025274001
-0.005024,0.031530499,-0.025267001
-0.005085,0.031140499,-0.025266003
-0.005034001,0.0300075,-0.025255002
-0.004709001,0.0290315,-0.025241002
-0.004135001,0.0280005,-0.025234003
-0.00408,0.027344499,-0.025227003
-0.004367,0.0262415,-0.025223002
-0.004546001,0.0251275,-0.025212001
-0.004368001,0.024129499,-0.025204003
-0.004174001,0.023750499,-0.025198001
-0.003546,0.022921499,-0.025195003
-0.002565,0.0224615,-0.025179002
-0.001488,0.022473499,-0.025172003
-0.000418,0.0227645,-0.025161002
-0.000101,0.0228955,-0.025165003
0.000774,0.0234235,-0.025165003
0.0012,0.023773499,-0.025165003
0.001855,0.0245465,-0.025172003
0.00241,0.025401499,-0.025172003
0.003005,0.0262895,-0.025156002
0.003443,0.0274285,-0.025175001
-0.005939,-0.073087499,-0.024486002
-0.005367001,-0.073893502,-0.024475999
-0.004584,-0.074584499,-0.024471
-0.003987,-0.074955501,-0.024456002
-0.003624001,-0.0752175,-0.024454001
-0.003018,-0.075971499,-0.024447002
-0.003020001,-0.077078499,-0.024438001
-0.003949001,-0.078966498,-0.024431001
-0.00421,-0.080280498,-0.024422999
-0.004211,-0.080927499,-0.024422001
-0.003838,-0.081947498,-0.024415001
-0.003647001,-0.082264498,-0.024408001
-0.002874,-0.082962498,-0.024401002
-0.001929,-0.083297499,-0.024392001
-0.000888,-0.083384499,-0.024376001
8.90E-05,-0.083219498,-0.024367999
0.000348,-0.083150499,-0.024363
0.00132,-0.082815498,-0.024360001
0.032666001,-0.064941503,-0.023619
0.033164002,-0.063437499,-0.023593001
0.033735,-0.061141502,-0.023588002
0.034400001,-0.060337503,-0.023586001
0.035191,-0.059742503,-0.023579001
0.035937,-0.059058502,-0.023588002
0.036469001,-0.058335502,-0.023593999
0.036888,-0.057375502,-0.023609001
0.037044,-0.056369502,-0.023612
0.037027001,-0.055937503,-0.023612
0.036850002,-0.054934502,-0.023632001
0.036611002,-0.053951502,-0.023635
0.036260001,-0.052929502,-0.023655999
0.035811,-0.052120503,-0.023674
0.035153002,-0.051374502,-0.023705002
0.034171,-0.050752502,-0.023712002
0.033218,-0.050320502,-0.023712002
0.032775,-0.050143503,-0.023743
0.03173,-0.050146502,-0.023728002
0.030613001,-0.050267503,-0.023782
0.029196002,-0.050722502,-0.023724999
0.028212,-0.051590502,-0.023724999
0.027692001,-0.052467503,-0.023712002
0.027308,-0.053441502,-0.023705002
0.027116001,-0.054488502,-0.023695
0.027034,-0.055613503,-0.023687001
0.027007001,-0.056835502,-0.023673002
0.027122,-0.057953503,-0.023655999
0.027332,-0.058952503,-0.023643002
0.027561001,-0.059944503,-0.023635
0.027793001,-0.060921501,-0.023634002
0.028032999,-0.061903503,-0.023635
0.028212,-0.062585503,-0.023632001
0.028622001,-0.063492499,-0.023627002
0.029259,-0.064294502,-0.023626
0.029908001,-0.064753503,-0.023619
0.030840002,-0.065088503,-0.023596
0.031775001,-0.065297499,-0.023577999
0.027184,0.016136501,-0.024223
0.027898001,0.016695499,-0.024229001
0.028531,0.017601501,-0.024224002
0.028833002,0.018786501,-0.024236001
0.028887,0.0201925,-0.024246
0.028854001,0.021341499,-0.024255
0.028903,0.0220135,-0.024259999
0.029235002,0.023029499,-0.024262
0.029606,0.023984499,-0.024266999
0.029771,0.0250265,-0.024270002
0.029647,0.0259635,-0.024278
0.029283002,0.0269005,-0.024289999
0.028702002,0.027695499,-0.024298001
0.028343,0.028028499,-0.024301
0.027883001,0.028320499,-0.024315
0.026953001,0.028593499,-0.024321999
0.025768001,0.0284785,-0.024324
0.025233001,0.028345499,-0.024332002
0.024245001,0.0280715,-0.024332002
0.023417,0.0277615,-0.024338
0.022832001,0.027470499,-0.024339002
0.021987,0.0269235,-0.024344999
0.021374,0.0261655,-0.024346001
0.020934001,0.025300499,-0.024346001
0.020587999,0.024349499,-0.024344999
0.020344,0.0229965,-0.024332002
0.020265,0.0224705,-0.024324
0.020334,0.021487501,-0.024324
0.020573001,0.0204845,-0.024309002
0.02084,0.0195195,-0.024301
0.021271002,0.018592499,-0.024293002
0.021689001,0.017895501,-0.024284001
0.022258,0.0170835,-0.024270002
0.022468001,0.016850501,-0.024261001
0.023238,0.016222499,-0.024255
0.024164001,0.015835501,-0.024245001
0.025249001,0.0156105,-0.024231002
0.026279001,0.015711501,-0.02423
0.003692,0.0285335,-0.024484001
0.003551,0.0293735,-0.024491999
0.003169,0.0302835,-0.024501
0.002622,0.0312085,-0.024509002
0.002126,0.0319685,-0.024518002
0.001484,0.0327495,-0.024530999
0.00084,0.033420499,-0.02454
8.20E-05,0.034070499,-0.024548002
-0.000411,0.0343825,-0.024556
-0.001367,0.0347335,-0.024564002
-0.001739,0.0347615,-0.024564002
-0.00227,0.0347615,-0.024571002
-0.003175001,0.0344785,-0.024578001
-0.003926001,0.033923499,-0.024572
-0.004616001,0.0331925,-0.024576999
-0.004856001,0.032712501,-0.024572
-0.005166001,0.0316655,-0.024572
-0.005227,0.0312225,-0.024572
-0.005165,0.030016501,-0.024557002
-0.004833001,0.029043499,-0.024546001
-0.004212,0.0280255,-0.024533
-0.004081001,0.027336501,-0.024526
-0.004360001,0.0262555,-0.024523001
-0.004561001,0.025136501,-0.024514999
-0.004388,0.024122499,-0.024507001
-0.004221001,0.0237175,-0.024503
-0.003601001,0.022875499,-0.024491999
-0.002564,0.022379499,-0.024479002
-0.001507,0.022365499,-0.024468999
-0.00048,0.0226085,-0.024462
-6.30E-05,0.022750501,-0.024462
0.000805,0.0232425,-0.024456002
0.001333,0.0236785,-0.024462
0.001998,0.0243885,-0.024463002
0.002502,0.025325499,-0.024468999
0.0032,0.0263445,-0.024462
-0.006204001,-0.072575502,-0.023795001
-0.005863001,-0.073055498,-0.023782
-0.005189001,-0.073755503,-0.023774002
-0.004259001,-0.0744095,-0.023758002
-0.003366,-0.075117499,-0.023743
-0.003058,-0.075535499,-0.023747999
-0.002911001,-0.075907499,-0.023743
-0.003043001,-0.077115498,-0.023740001
-0.003942001,-0.0789105,-0.023726001
-0.004143001,-0.0802055,-0.023719002
-0.004035001,-0.081134498,-0.023719002
-0.003740001,-0.081850499,-0.023717001
-0.003105001,-0.082581498,-0.023704
-0.002797,-0.082801498,-0.023703001
-0.00184,-0.083122499,-0.023687001
-0.00081,-0.0832325,-0.023681
0.000128,-0.083066501,-0.023666002
0.001216,-0.082709499,-0.023662999
0.032457002,-0.064785503,-0.02293
0.033124,-0.062682502,-0.022890002
0.033268999,-0.062087502,-0.022888999
0.03365,-0.060962502,-0.022881001
0.034262002,-0.060204502,-0.022888999
0.035050999,-0.059593502,-0.022890002
0.035477001,-0.059262503,-0.022888999
0.036145002,-0.058502503,-0.022898
0.036754999,-0.057338502,-0.022905
0.036996,-0.056364503,-0.022911999
0.037028,-0.055937503,-0.022914
0.036989,-0.054931503,-0.022927001
0.036826,-0.053932503,-0.022938002
0.036548,-0.052830502,-0.022952002
0.036247,-0.052157503,-0.022969
0.035703,-0.051314503,-0.02299
0.035284001,-0.050901502,-0.022989001
0.034416001,-0.050332502,-0.023028001
0.033487,-0.049904503,-0.023031
0.032852001,-0.049670503,-0.023038
0.031876002,-0.049640503,-0.023007002
0.030691002,-0.049771503,-0.0231
0.029387999,-0.050189503,-0.023054
0.028709002,-0.050685503,-0.023042999
0.028061001,-0.051505502,-0.023028001
0.027584001,-0.052405503,-0.023012001
0.027255001,-0.053363502,-0.023000002
0.027096,-0.054470502,-0.022996999
0.027138,-0.056906503,-0.022961002
0.027281001,-0.057931501,-0.022950999
0.027472001,-0.058939502,-0.022943001
0.027639002,-0.059931502,-0.022943001
0.027871002,-0.060950503,-0.022938002
0.027967,-0.061345503,-0.022938002
0.028134,-0.061947502,-0.02293
0.028297,-0.062475502,-0.022927999
0.028777,-0.063396499,-0.022918999
0.029430002,-0.064092502,-0.022914
0.030007999,-0.064466499,-0.022907
0.030909002,-0.064808503,-0.022904001
0.0317,-0.064965501,-0.022876002
0.027088001,0.016099501,-0.023525
0.027844001,0.016742501,-0.023526002
0.028469,0.0176415,-0.023526002
0.028760999,0.018818501,-0.023538999
0.028810002,0.0201835,-0.023542002
0.028795,0.021364499,-0.023554999
0.028841,0.0220135,-0.023557
0.029229,0.023047499,-0.023563001
0.029623002,0.024000499,-0.023565002
0.029846001,0.0250175,-0.023570001
0.029745001,0.0260325,-0.023579001
0.02942,0.0269715,-0.023588002
0.028849002,0.027794499,-0.023602001
0.028469,0.0281495,-0.023604002
0.027561001,0.0286365,-0.023612
0.027034,0.028777499,-0.023616999
0.026015,0.028740499,-0.023625001
0.025229,0.0285745,-0.023633
0.024234001,0.0282965,-0.023639999
0.023362,0.028003499,-0.023639999
0.022692,0.027686499,-0.023635
0.021898001,0.027098499,-0.023642
0.021193001,0.026322499,-0.023641001
0.020674001,0.0254445,-0.023657002
0.020362999,0.024478499,-0.023639999
0.020168001,0.023472499,-0.023635
0.020178001,0.0224545,-0.023618001
0.020243,0.0214555,-0.023616999
0.020423001,0.020452499,-0.023603
0.020659,0.019477502,-0.023600999
0.021038,0.0186795,-0.023588002
0.021576,0.017865501,-0.023581002
0.022204001,0.017042499,-0.023565002
0.022424001,0.016770501,-0.023561999
0.023227001,0.016230501,-0.02355
0.024144001,0.015805501,-0.023542002
0.025241001,0.015588501,-0.023533002
0.026283,0.015719499,-0.023526002
0.003327,0.030033499,-0.023796
0.003195,0.0303015,-0.023798
0.002633,0.031202499,-0.023805
0.002091,0.031955499,-0.023820002
0.00168,0.0324715,-0.023829002
0.00103,0.0332225,-0.023835
1.00E-04,0.034100499,-0.023848999
-0.000406,0.034442499,-0.023852002
-0.001356,0.034805499,-0.023864001
-0.00174,0.034867499,-0.023867
-0.002685,0.034759499,-0.023867
-0.003196,0.034543499,-0.023871999
-0.003987,0.0340215,-0.023875002
-0.004683,0.033296499,-0.023875002
-0.004977,0.032784499,-0.023874
-0.005164,0.032317501,-0.023874
-0.005375001,0.0313095,-0.023873001
-0.005327,0.0301705,-0.023859002
-0.004963,0.0290315,-0.023848999
-0.004281,0.027966499,-0.023834001
-0.004056,0.027330499,-0.023825999
-0.004343,0.026262499,-0.023820002
-0.00456,0.025123499,-0.023811001
-0.004389,0.0241355,-0.023802999
-0.004244001,0.0237105,-0.023802999
-0.00363,0.022897501,-0.023790002
-0.002607,0.0222775,-0.023774002
-0.001554,0.022254501,-0.023772001
-0.000499,0.0224705,-0.023765001
-4.20E-05,0.0226565,-0.023765001
0.000879,0.0231505,-0.023759
0.001444,0.023550499,-0.023756001
0.00203,0.024370499,-0.023763999
0.002494,0.025291499,-0.023747999
0.003587,0.026236501,-0.023786999
0.0038,0.0273735,-0.023772001
0.003803,0.028407499,-0.023782
0.003563,0.0293805,-0.023786999
-0.006142001,-0.072554499,-0.023090001
-0.005305001,-0.073356502,-0.023077
-0.004925,-0.073622502,-0.023076002
-0.003973001,-0.074244499,-0.023060001
-0.003213,-0.075011499,-0.023051001
-0.002847,-0.075870499,-0.023044001
-0.003105001,-0.077143498,-0.023035999
-0.00383,-0.078846499,-0.023029
-0.004025,-0.0801135,-0.023021001
-0.003887,-0.081024498,-0.023028001
-0.003601001,-0.081699498,-0.023028001
-0.003165,-0.082677498,-0.022907
-0.002208,-0.083123498,-0.022905
-0.001829,-0.083383501,-0.022856999
-0.00074,-0.083017498,-0.022989001
0.000163,-0.082852498,-0.022969
0.0012,-0.082492501,-0.022957999
0.032517999,-0.064094499,-0.022217002
0.033029001,-0.062369503,-0.022190999
0.033146001,-0.061926503,-0.022190999
0.033551,-0.060870502,-0.022186
0.034155,-0.060087502,-0.0222
0.034944002,-0.059474502,-0.022199001
0.035308,-0.059173502,-0.0222
0.036019001,-0.058401503,-0.022202
0.036673002,-0.057324503,-0.022208001
0.036835,-0.056915503,-0.022209
0.037068002,-0.055937503,-0.022215001
0.037138,-0.054924503,-0.022222999
0.037074,-0.053921502,-0.022233002
0.036898002,-0.052933503,-0.022252999
0.036478002,-0.051811501,-0.022284999
0.036077,-0.051094502,-0.022295002
0.035787001,-0.050717503,-0.022295002
0.035023,-0.050052501,-0.022318002
0.034665,-0.049849503,-0.022337999
0.033705,-0.049510501,-0.022318002
0.032993,-0.049262501,-0.022318002
0.031991001,-0.049126502,-0.022326
0.030868001,-0.049275503,-0.022399999
0.029304001,-0.049769502,-0.022369001
0.028555002,-0.050609503,-0.022348002
0.027898001,-0.051415503,-0.022318002
0.027526001,-0.052366503,-0.02231
0.027437001,-0.052770503,-0.022307001
0.027623001,-0.059099503,-0.022252999
0.027704,-0.059901502,-0.022248
0.027774001,-0.060245503,-0.022245999
0.027929001,-0.060948502,-0.022240002
0.028030001,-0.061332501,-0.022238001
0.028388999,-0.062383503,-0.022231001
0.028918002,-0.063254498,-0.022231001
0.02919,-0.063580498,-0.022229999
0.030050002,-0.064177498,-0.022217002
0.030956,-0.064524502,-0.022202
0.031597,-0.064627498,-0.022186
0.032426,-0.064292498,-0.022254001
0.027085001,0.016167499,-0.022828002
0.027816001,0.016825501,-0.022835001
0.028392002,0.017755501,-0.022829
0.028678,0.018896502,-0.022836
0.028762002,0.020312499,-0.022845
0.028748002,0.021380499,-0.022852
0.028817002,0.022025499,-0.022858001
0.029235002,0.0230265,-0.022860002
0.029706001,0.0240185,-0.022865001
0.029910002,0.025029499,-0.022868
0.029864002,0.0260965,-0.022876002
0.029538002,0.0270155,-0.022888001
0.028956,0.0278745,-0.022904001
0.028555002,0.0282575,-0.022907
0.027706999,0.0287835,-0.022918999
0.027112,0.0289605,-0.022914
0.026081,0.028978501,-0.02293
0.025222,0.0287905,-0.022936001
0.024238002,0.028521501,-0.022943001
0.023296,0.0281725,-0.022944
0.022389,0.027757499,-0.022950001
0.021790002,0.0272795,-0.022950001
0.021054,0.026462499,-0.022950001
0.020482,0.0255735,-0.022953
0.020129001,0.0246085,-0.022950999
0.019976001,0.0235705,-0.022934999
0.020038001,0.0224085,-0.022929002
0.020112,0.0214235,-0.022920001
0.02035,0.0204405,-0.022907
0.020538,0.019467499,-0.022897001
0.020953,0.018530499,-0.022888999
0.021448001,0.017780501,-0.022881001
0.022084001,0.016988501,-0.022868
0.022362001,0.016703501,-0.022865999
0.023215,0.016213499,-0.022852
0.024164001,0.015795499,-0.022845
0.025245,0.0156095,-0.022836
0.025566,0.015632499,-0.022836
0.026566001,0.015872501,-0.022829
0.003342,0.0299915,-0.023099001
0.003187,0.0303105,-0.0231
0.002629,0.0312085,-0.023108002
0.002069,0.031962499,-0.023123
0.001666,0.032464501,-0.023127999
0.001004,0.033202499,-0.023139
8.60E-05,0.0341065,-0.023153
-0.000396,0.0344695,-0.023155
-0.00134,0.0348805,-0.023166999
-0.00172,0.0349655,-0.023168001
-0.002688,0.0349035,-0.023175001
-0.003236,0.0346875,-0.023177002
-0.004063,0.034148499,-0.023177002
-0.004786001,0.0334475,-0.023176
-0.005096001,0.0329285,-0.023176
-0.00532,0.032402501,-0.023176
-0.005530001,0.031403501,-0.023170002
-0.005561001,0.0310225,-0.023176
-0.005468001,0.030010499,-0.023159999
-0.005111001,0.029041499,-0.023153
-0.004453001,0.028041501,-0.023131002
-0.004066001,0.0273115,-0.023129001
-0.00432,0.026260499,-0.023120999
-0.004538001,0.0251205,-0.023114
-0.004391001,0.024039499,-0.023107
-0.004275001,0.0237015,-0.0231
-0.003655001,0.0228885,-0.023093
-0.002895,0.022310499,-0.023077
-0.002631,0.022202499,-0.023076002
-0.001643,0.0221125,-0.023069002
-0.000531,0.022358499,-0.023062002
-1.60E-05,0.0225485,-0.023058999
0.000876,0.022999499,-0.023060001
0.001684,0.023706499,-0.023069002
0.002355,0.0245305,-0.023062002
0.00285,0.025392499,-0.023060001
0.003551,0.0262665,-0.023068
0.003858,0.027398501,-0.023074001
0.003819,0.028416499,-0.023081999
0.00359,0.0293805,-0.023090001
-0.006046,-0.072511502,-0.022388
-0.005615001,-0.072853498,-0.022380002
-0.00466,-0.073478498,-0.022369001
-0.003771001,-0.074113503,-0.022362001
-0.003105001,-0.074938498,-0.022349
-0.002835,-0.075846501,-0.022341002
-0.003198001,-0.0771835,-0.02234
-0.003702001,-0.078732498,-0.022330999
-0.003849001,-0.079967499,-0.022323001
-0.003802001,-0.080459498,-0.022333
-0.003593001,-0.081616499,-0.022240002
-0.002658,-0.082074501,-0.022409
-0.001839,-0.0825615,-0.022363
-0.001615,-0.082714498,-0.022307001
-0.000574,-0.082686499,-0.022301
0.000224,-0.0825155,-0.022279002
0.001178,-0.082199499,-0.022261001
0.032418001,-0.063864499,-0.02152
0.032882001,-0.062291503,-0.021505002
0.033412002,-0.060762502,-0.021497
0.034091,-0.059997503,-0.021503001
0.034887999,-0.059419502,-0.021503001
0.035619002,-0.058760501,-0.021503001
0.035958,-0.058360502,-0.021504
0.036501002,-0.057549503,-0.021504
0.037029002,-0.056371503,-0.021510001
0.037254002,-0.055393502,-0.021512002
0.037330002,-0.054924503,-0.021517999
0.037361,-0.053916503,-0.021533001
0.037347,-0.053634502,-0.021536
0.037190001,-0.052637503,-0.021551002
0.036867,-0.051700503,-0.021572001
0.036456,-0.050871503,-0.021589
0.035852,-0.050058503,-0.021609999
0.034945,-0.049360503,-0.021634001
0.033938002,-0.049069501,-0.021620002
0.033102002,-0.048857503,-0.021627001
0.032087002,-0.048678502,-0.021644
0.030983999,-0.048818503,-0.02169
0.029554002,-0.049076501,-0.021719001
0.029001001,-0.049686503,-0.021673001
0.028382,-0.050515503,-0.021643002
0.027848002,-0.051356502,-0.021618001
0.027708001,-0.058900502,-0.021551002
0.027817,-0.059903502,-0.021543
0.027855001,-0.060245503,-0.021540999
0.028057002,-0.061244503,-0.021540999
0.028461002,-0.062303502,-0.021540001
0.029040001,-0.063109502,-0.021528002
0.029770002,-0.063740499,-0.021517999
0.030030999,-0.063878499,-0.021528002
0.030956,-0.064218499,-0.021501999
0.031497002,-0.064273499,-0.021496002
0.026968,0.016151499,-0.022124
0.027781,0.016917501,-0.022124
0.028376002,0.017979499,-0.022131
0.028616,0.018908501,-0.022137001
0.028717,0.020264499,-0.022147
0.028731,0.021373499,-0.022155002
0.028794002,0.022016499,-0.022155002
0.029304001,0.023045499,-0.022160999
0.029801,0.0240255,-0.022162002
0.030017,0.025035501,-0.022169001
0.029964,0.026099499,-0.022177
0.029647,0.0270565,-0.022190999
0.029105,0.0279635,-0.0222
0.028669,0.028397501,-0.022202
0.027853999,0.0289465,-0.022217002
0.027212001,0.0291785,-0.022217002
0.026139,0.0292175,-0.022225
0.025218001,0.029034499,-0.022238001
0.024226001,0.0287745,-0.022245001
0.023230001,0.0284045,-0.022248
0.02232,0.0279635,-0.022248
0.021576,0.0273825,-0.022252999
0.020903001,0.026625499,-0.022254001
0.020327,0.0256625,-0.022254001
0.019905999,0.0247485,-0.022248
0.019827001,0.0236555,-0.022233002
0.019916,0.022404499,-0.022225
0.019955,0.021373499,-0.022216
0.020207001,0.020387501,-0.022215001
0.020404,0.019405499,-0.022202
0.020812999,0.018523499,-0.022190999
0.021354999,0.017747499,-0.022183999
0.021755001,0.017237499,-0.022177
0.022487,0.016532499,-0.022160999
0.023153,0.016144499,-0.022155002
0.024109,0.015765499,-0.022146001
0.025235999,0.015634499,-0.022132002
0.02555,0.015663501,-0.022130001
0.026549,0.015951499,-0.022128999
0.0033,0.0300145,-0.022395
0.003172,0.0303105,-0.022399999
0.002602,0.0312085,-0.022408001
0.002037,0.0319525,-0.022419002
0.001634,0.032449499,-0.022426002
0.000972,0.0331765,-0.022433002
7.40E-05,0.0340905,-0.022447001
-0.000403,0.0345015,-0.022457
-0.001333,0.0349265,-0.022465002
-0.001713,0.0350185,-0.022471
-0.002699,0.0349865,-0.022472002
-0.003283001,0.034807499,-0.022477999
-0.004164,0.034269501,-0.022479001
-0.004895001,0.0336175,-0.02248
-0.00525,0.033064499,-0.022477999
-0.005499001,0.0325105,-0.022479001
-0.005723001,0.031505499,-0.022477999
-0.005762001,0.0306555,-0.022465002
-0.005700001,0.030001499,-0.022461999
-0.005359001,0.029064499,-0.022449002
-0.00463,0.0280465,-0.022434
-0.004128001,0.0272885,-0.022426002
-0.004298001,0.026262499,-0.022419002
-0.004538001,0.0250425,-0.022410002
-0.004414001,0.024037499,-0.022403002
-0.004281,0.0237015,-0.022401001
-0.003717001,0.0228815,-0.022388
-0.002927001,0.0222615,-0.022380002
-0.002274,0.0220205,-0.022376999
-0.00167,0.022009499,-0.022371002
-0.000542,0.0222225,-0.022362001
4.70E-05,0.022418499,-0.022357002
0.000906,0.022897501,-0.022355001
0.001782,0.023527499,-0.022364002
0.002514,0.0244295,-0.022357002
0.002905,0.025353499,-0.022357002
0.003683,0.0262205,-0.022364002
0.003896,0.027408499,-0.022372
0.003784,0.028414499,-0.022380002
0.003564,0.029376499,-0.022388
-0.005437001,-0.072731502,-0.021683
-0.00445,-0.073319502,-0.021682002
-0.003653,-0.074036501,-0.021666002
-0.003059001,-0.074920498,-0.021652002
-0.002863,-0.075843498,-0.021644
-0.003243,-0.077276498,-0.021636002
-0.003559,-0.078649499,-0.021635
-0.003523001,-0.080206499,-0.021659002
-0.003071,-0.081152499,-0.021705002
-0.002269,-0.081570499,-0.021876
-0.001364,-0.082199499,-0.021657001
-0.000693,-0.0822675,-0.021643002
0.000321,-0.0820425,-0.021629002
0.001158,-0.081758499,-0.021590002
0.001839,-0.081331499,-0.021574002
0.002234,-0.080806501,-0.021590002
0.032116,-0.063779503,-0.020792
0.032820001,-0.061942503,-0.020803999
0.03331,-0.060626503,-0.020805001
0.034053002,-0.059935503,-0.020806
0.034884002,-0.059375502,-0.020805001
0.035635002,-0.058766503,-0.020805001
0.035987999,-0.058371503,-0.020800002
0.036545999,-0.057549503,-0.020800002
0.037135001,-0.056387503,-0.020805001
0.037314001,-0.055910502,-0.020807002
0.03754,-0.054915503,-0.020819999
0.037602,-0.053910501,-0.020823002
0.037595,-0.053583503,-0.020831
0.037486002,-0.052561503,-0.020846002
0.037229002,-0.051597502,-0.020862002
0.036827002,-0.050665502,-0.020890001
0.036231,-0.049840502,-0.020923
0.035193,-0.048899502,-0.02093
0.034186002,-0.048644502,-0.020913001
0.033218,-0.048361503,-0.020908002
0.032278001,-0.048067503,-0.020924002
0.031048,-0.048269503,-0.021078002
0.029514,-0.048791502,-0.020953
0.028753001,-0.049578503,-0.020954002
0.027654,-0.058247503,-0.020860001
0.0277,-0.058913503,-0.020852
0.027875001,-0.059919503,-0.020844001
0.028088,-0.060911503,-0.020837002
0.028134,-0.061157502,-0.020844001
0.028692,-0.062225502,-0.020823002
0.029187001,-0.062946498,-0.020838
0.029984999,-0.063520499,-0.020823002
0.031134002,-0.063888498,-0.020812001
0.026875,0.016198501,-0.021427002
0.027755,0.016988501,-0.021427002
0.028328001,0.018088501,-0.021433
0.028569002,0.019072499,-0.021435
0.028670002,0.0204315,-0.021448001
0.028702002,0.021402501,-0.021450002
0.0288,0.0220205,-0.021455001
0.029368002,0.0230585,-0.021462999
0.029902,0.0240415,-0.021465
0.030140001,0.0251665,-0.021466002
0.030086,0.026135501,-0.021474
0.029782999,0.0270955,-0.021481
0.029226001,0.028041501,-0.021501999
0.028769001,0.0285355,-0.021505002
0.027999001,0.0291255,-0.02152
0.027333001,0.029412501,-0.021524999
0.026298001,0.029484499,-0.021533001
0.025109001,0.0292795,-0.021540999
0.02423,0.0290245,-0.021549001
0.023149,0.0286525,-0.021557
0.022262,0.0281725,-0.021557
0.021565001,0.027633499,-0.02155
0.020782001,0.0267535,-0.021556001
0.020133,0.0257775,-0.021551002
0.019748,0.024849501,-0.021549001
0.019709,0.023752499,-0.021547999
0.019750001,0.023403499,-0.021536
0.019790001,0.022388499,-0.021536
0.019819001,0.0213775,-0.021524999
0.020029999,0.0204405,-0.021512002
0.020272,0.019344501,-0.021511
0.020659,0.0185165,-0.021495
0.021247,0.017678499,-0.021481
0.02189,0.016942501,-0.021466002
0.022460001,0.016478501,-0.021462999
0.023107,0.016060501,-0.021458
0.024135999,0.015709501,-0.021443002
0.025264001,0.0156095,-0.021433
0.025568999,0.015658502,-0.021432001
0.026622999,0.016067501,-0.021427002
0.002618,0.0311395,-0.021710999
0.002017,0.031939499,-0.021721002
0.001367,0.0327265,-0.021733999
0.00079,0.033372499,-0.021737002
7.30E-05,0.0341135,-0.021745
-0.000411,0.0345245,-0.021756999
-0.001313,0.034998499,-0.021765001
-0.001719,0.0350965,-0.021768
-0.002715,0.0351215,-0.021776002
-0.003322001,0.0349265,-0.021776002
-0.004228001,0.034449499,-0.021783002
-0.005016,0.033806499,-0.021788999
-0.005406001,0.033234499,-0.021776002
-0.005700001,0.0326345,-0.021781001
-0.005940001,0.031622499,-0.021781001
-0.006010001,0.0307195,-0.021772999
-0.005845,0.029684499,-0.021760002
-0.005575,0.0290085,-0.021756999
-0.004910001,0.028097499,-0.021742001
-0.004189,0.0272655,-0.021733999
-0.004282,0.0262895,-0.021721002
-0.004535,0.0250565,-0.021706
-0.004437,0.0240575,-0.021706
-0.004304,0.023704499,-0.021703001
-0.003762,0.0228495,-0.021689001
-0.00297,0.022193499,-0.021682002
-0.002316,0.021938499,-0.021671999
-0.001682,0.0219125,-0.021667
-0.000623,0.022045501,-0.021664001
8.50E-05,0.0222685,-0.021652002
0.000968,0.0226775,-0.021650001
0.001794,0.0234605,-0.021657001
0.00254,0.024454501,-0.021652002
0.002928,0.025332499,-0.021650001
